0.016885 0.003076 0.003652
0.010563 -0.011551 0.005578
0.002090 -0.010526 0.013452
0.010310 0.011850 0.007476
0.002420 0.023603 0.002160
0.009326 0.004569 0.015530
0.012799 0.005233 0.012456
0.007268 -0.010560 0.012119
0.016210 0.000055 0.001866
0.011788 -0.001772 0.012972
0.007647 0.013629 0.000683
0.006052 0.015869 0.001491
0.001465 0.018435 0.014612
0.007795 0.006296 0.016126
0.014747 0.000455 0.009061
0.001730 -0.014004 0.011734
0.000149 0.011198 0.015278
0.015074 -0.004022 0.000973
0.002654 0.017592 0.013411
0.012756 -0.008169 0.004060
0.011629 0.012259 0.005646
0.003468 0.026353 0.003016
0.007813 0.011989 0.011432
0.007356 -0.014453 0.009004
0.003958 0.023616 0.001752
0.008900 -0.015178 0.005094
0.008660 0.017285 0.015099
0.011957 0.011437 0.006939
0.000392 0.018082 0.013776
0.002538 0.016148 0.005832
0.000772 0.018541 0.014092
0.007460 -0.018151 0.000620
0.006867 -0.019124 0.004533
0.007724 0.011000 0.013512
0.013794 -0.004620 0.007538
0.009736 -0.002923 0.014777
0.012975 -0.007817 0.003109
0.008833 0.013901 0.000768
0.005419 0.012014 0.013246
0.015553 0.006477 0.005884
0.002267 -0.015120 0.011283
0.004089 -0.021137 0.007244
0.009704 0.023224 0.001367
0.004732 -0.013152 0.011781
0.007880 0.009601 0.014151
0.001438 0.004435 0.018337
0.007693 0.012519 0.010755
0.016446 0.004349 0.003736
0.015839 -0.000646 0.000542
0.008108 0.017494 0.014940
0.008143 -0.013422 0.008481
0.010896 0.004490 0.014592
0.016086 0.003665 0.006712
0.003778 -0.016772 0.010317
0.014723 -0.004580 0.000587
0.002593 -0.019606 0.009470
0.013981 0.004511 0.011045
0.001636 0.011209 0.016037
0.004134 0.015506 0.007854
0.009106 0.011831 0.008212
0.002804 -0.023532 0.005274
0.009880 0.012805 0.000233
0.015784 0.000631 0.005363
0.011864 0.003596 0.012826
0.009817 0.013136 0.000577
0.010101 -0.011063 0.007259
0.006156 -0.000689 0.016868
0.008371 -0.016310 0.001516
0.006431 -0.005662 0.015080
0.008247 0.016540 0.012837
0.008169 0.016320 0.014117
0.007620 0.014385 0.007908
0.008226 -0.004209 0.014496
0.012116 0.011338 0.000423
0.006597 0.010917 0.014646
0.015574 -0.002071 0.005159
0.008039 -0.016746 0.004501
0.001738 0.018112 0.014372
0.010939 0.003535 0.014832
0.003767 0.000744 0.017857
0.007411 0.006970 0.016172
0.003063 0.017500 0.013441
0.006850 -0.003156 0.015500
0.001479 0.026921 0.002754
0.015620 -0.001989 0.003291
0.001169 -0.005514 0.016316
0.012582 -0.008233 0.005619
0.002635 -0.025228 0.000923
0.002327 0.026756 0.003057
0.001113 0.012568 0.013983
0.008904 0.002983 0.016398
0.009425 0.007198 0.015109
0.010854 0.009904 0.009466
0.013372 0.008059 0.009654
0.007115 -0.019140 0.001022
0.010536 0.006986 0.013869
0.012472 0.000963 0.012975
0.001421 -0.020962 0.008359
0.007913 -0.013986 0.008528
0.002648 0.016209 0.010717
0.011667 0.003563 0.013260
0.008694 0.016704 0.014388
0.001219 -0.003121 0.017372
0.009868 -0.010922 0.008225
0.004041 0.015628 0.009399
0.008726 -0.014857 0.006358
0.007171 0.015885 0.000342
0.000158 0.025120 0.000227
0.006334 0.016039 0.013694
0.006883 0.013767 0.000691
0.010697 0.009347 0.012494
0.010818 0.024106 0.002148
0.007858 -0.015831 0.006644
0.007193 0.014461 0.007753
0.014986 0.009778 0.004840
0.002995 0.024770 0.000163
0.007886 -0.017176 0.002499
0.011208 -0.010143 0.003746
0.013592 0.006276 0.009771
0.003752 -0.007051 0.014902
0.010818 0.024106 0.002148
0.008332 0.014898 0.009340
0.016792 0.001735 0.002555
0.015941 -0.000799 0.001089
0.002494 -0.020503 0.008942
0.012004 0.010847 0.007284
0.001246 0.011930 0.002225
0.010916 0.004887 0.014460
0.002589 -0.018322 0.009921
0.009615 0.017404 0.000258
0.011973 -0.008395 0.007299
0.005814 0.014865 0.007371
0.008204 0.017256 0.014351
0.015074 -0.002909 0.005196
0.006729 -0.012071 0.011344
0.002494 -0.020503 0.008942
0.005452 0.015210 0.006927
0.014660 -0.004817 0.001525
0.003185 0.013152 0.012015
0.016003 -0.000312 0.000911
0.011475 0.012835 0.001478
0.010452 -0.012106 0.001949
0.007540 0.014593 0.010291
0.010698 0.009640 0.011986
0.007445 0.014438 0.009642
0.000361 0.010914 0.000704
0.009691 -0.013371 0.001043
0.010538 0.022993 0.000881
0.014923 0.009099 0.001684
0.003040 0.010388 0.015793
0.014901 0.009969 0.004416
0.005993 -0.021139 0.001476
0.009966 -0.012582 0.006005
0.016455 0.000925 0.003463
0.008890 -0.015693 0.001069
0.004720 0.013718 0.011587
0.013851 -0.005957 0.005535
0.008316 0.016090 0.011565
0.009420 0.010342 0.013118
0.012963 0.006615 0.010906
0.005117 0.014846 0.010224
0.005590 -0.005977 0.014967
0.014843 -0.003620 0.005199
0.008863 0.010355 0.013416
0.013909 -0.004910 0.007311
0.010764 -0.001326 0.014119
0.007693 0.012519 0.010755
0.010795 -0.008592 0.009481
0.009661 0.021140 0.000222
0.003956 -0.010387 0.013221
0.002740 -0.024306 0.003858
0.007316 0.010424 0.014119
0.015742 -0.001443 0.002049
0.015503 0.001097 0.007866
0.009162 0.004876 0.015551
0.012720 0.006252 0.011831
0.005735 0.014386 0.000747
0.010622 0.012441 0.000391
0.008887 -0.015254 0.003635
0.005609 0.000599 0.017207
0.010767 -0.010833 0.001370
0.012349 0.009122 0.008633
0.003936 -0.022169 0.005879
0.016044 0.002319 0.006777
0.013679 0.010836 0.005105
0.009442 -0.014322 0.002276
0.000029 0.022157 0.000728
0.003572 -0.023762 0.003121
0.004815 0.015700 0.005108
0.010400 -0.011937 0.004497
0.016536 0.006294 0.001273
0.008143 -0.014270 0.007841
0.003336 0.017123 0.012976
0.003219 0.025211 0.000895
0.008918 0.008995 0.014300
0.010833 -0.011257 0.004083
0.016065 0.006251 0.000398
0.010457 -0.008607 0.009937
0.016682 0.004276 0.004613
0.000471 0.013146 0.011791
0.000415 -0.018727 0.009286
0.005487 -0.017325 0.008833
0.005387 -0.014762 0.010372
0.002024 0.010512 0.016698
0.001311 -0.010209 0.013748
0.009576 0.023828 0.001780
0.003252 0.011744 0.014390
0.007139 -0.018425 0.000018
0.001193 0.006360 0.017746
0.009102 -0.014852 0.003253
0.007916 0.014936 0.010451
0.000652 -0.006588 0.015637
0.003575 0.007304 0.017406
0.009073 0.024806 0.000852
0.000620 -0.019600 0.009095
0.002216 0.026246 0.001758
0.008063 -0.011972 0.010269
0.012999 -0.006382 0.007249
0.011774 -0.007987 0.008312
0.005329 -0.010845 0.012653
0.016690 0.004893 0.004636
0.011534 0.001053 0.014283
0.000566 0.026646 0.003829
0.004283 -0.015112 0.010670
0.004913 0.010811 0.015141
0.008014 0.014627 0.000681
0.016631 0.005488 0.004473
0.004695 0.015320 0.000042
0.011684 -0.006846 0.009543
0.003063 0.017500 0.013441
0.001982 0.017013 0.012950
0.001086 0.014022 0.011122
0.006115 0.014649 0.000725
0.001371 -0.010578 0.013531
0.001123 0.017059 0.013144
0.005666 -0.019173 0.007631
0.015255 0.004128 0.008650
0.011647 -0.010017 0.003106
0.009103 -0.010295 0.009801
0.004351 0.015609 0.003062
0.012405 -0.004698 0.010648
0.009366 -0.001582 0.014979
0.006443 0.007149 0.016807
0.009623 0.011439 0.010426
0.015878 0.006948 0.001932
0.007353 0.006566 0.016119
0.008413 0.012105 0.010032
0.009491 -0.013323 0.005443
0.001385 -0.017537 0.010172
0.009725 -0.008721 0.010728
0.002306 -0.023974 0.004834
0.012320 0.007897 0.011441
0.010412 0.024167 0.001101
0.014501 -0.005227 0.000383
0.013793 -0.004971 0.007619
0.006759 0.014469 0.007297
0.004027 0.000485 0.017687
0.014559 -0.004722 0.002901
0.012580 0.009039 0.009226
0.007147 0.015474 0.013023
0.003373 -0.014251 0.011521
0.002277 -0.002832 0.017329
0.006807 -0.008955 0.012641
0.001859 -0.022804 0.006366
0.008054 0.012427 0.008006
0.008563 -0.010080 0.010575
0.001639 0.012291 0.014892
0.002061 -0.018990 0.009745
0.008502 0.016539 0.012869
0.014161 0.010657 0.003463
0.003273 0.016400 0.011323
0.016128 0.000239 0.000871
0.012621 -0.003402 0.010970
0.002141 -0.009956 0.013630
0.005825 -0.002407 0.016288
0.000610 -0.020796 0.008317
0.013133 0.009919 0.005963
0.002467 0.012428 0.001221
0.007744 -0.017306 0.005119
0.010172 0.023921 0.000214
0.013643 0.004692 0.011586
0.007746 0.015756 0.013190
0.003685 -0.021378 0.007402
0.010198 -0.011442 0.007259
0.004450 -0.019437 0.008284
0.003148 0.015550 0.011635
0.012993 0.008928 0.007900
0.010036 -0.003504 0.014269
0.004207 0.025300 0.002268
0.008310 0.010705 0.013411
0.002678 0.015173 0.002955
0.009449 0.010646 0.012756
0.008273 -0.002513 0.015507
0.007249 -0.006613 0.014365
0.015356 -0.002134 0.005475
0.011589 0.003560 0.013944
0.009145 0.017493 0.000004
0.000263 -0.008116 0.014866
0.010503 0.012688 0.006317
0.004335 0.015032 0.011254
0.012097 0.003624 0.012630
0.008565 -0.007123 0.013378
0.007056 -0.014104 0.009577
0.012761 0.002434 0.012802
0.009600 0.012688 0.007115
0.011603 -0.004770 0.011566
0.000795 0.017541 0.013573
0.008598 -0.006833 0.013493
0.006838 0.015418 0.000447
0.013427 -0.002901 0.010465
0.003341 0.014845 0.002281
0.001302 0.013340 0.002740
0.012245 -0.008439 0.001143
0.013727 -0.006272 0.003073
0.008539 0.014645 0.001060
0.010733 0.008107 0.013021
0.014752 -0.004431 0.002755
0.016783 0.001821 0.001207
0.009723 -0.013437 0.005050
0.000321 -0.004633 0.016751
0.010046 -0.001221 0.014700
0.016830 0.003235 0.002120
0.007021 0.013735 0.009097
0.012104 0.012248 0.004687
0.015839 -0.001135 0.001380
0.009473 0.025178 0.000494
0.011257 0.009762 0.009309
0.000284 0.024599 0.003785
0.001685 0.009965 0.016878
0.003123 0.009710 0.016687
0.013075 -0.002039 0.010919
0.002286 0.016496 0.011964
0.011045 -0.009512 0.006041
0.002490 0.017906 0.014283
0.008212 0.016686 0.014581
0.006587 -0.020039 0.004026
0.000870 0.027070 0.002499
0.004621 -0.020691 0.006918
0.002628 0.026115 0.001710
0.014368 0.009984 0.005759
0.008481 -0.012612 0.009392
0.012764 0.006358 0.011480
0.002342 0.026952 0.003430
0.006236 0.011230 0.013983
0.007044 -0.014916 0.008956
0.002596 -0.003271 0.016931
0.005118 -0.016464 0.009685
0.015646 0.007462 0.001349
0.000281 0.013594 0.011253
0.003962 0.015674 0.006857
0.010197 0.009424 0.013158
0.007137 0.016232 0.013301
0.002442 -0.012695 0.012510
0.009843 0.003925 0.015495
0.013746 0.010297 0.005713
0.015682 -0.002005 0.002819
0.007527 0.015862 0.013464
0.000392 0.018082 0.013776
0.013761 -0.000523 0.010823
0.000423 0.016078 0.010041
0.013815 -0.004426 0.008434
0.015053 -0.002141 0.007027
0.015835 -0.000503 0.005830
0.010261 0.025367 0.002327
0.010142 0.000982 0.015058
0.015147 0.006203 0.007265
0.011961 -0.003609 0.011675
0.006639 -0.017438 0.007603
0.013767 0.010971 0.003432
0.000274 -0.014260 0.011323
0.016648 0.003465 0.002679
0.009031 0.002175 0.016125
0.001324 0.018744 0.014978
0.002154 0.024426 0.002792
0.010563 -0.011551 0.005578
0.004173 -0.010039 0.013180
0.000446 0.018390 0.013720
0.016493 0.004810 0.003695
0.003659 0.001292 0.017969
0.006886 -0.018020 0.006506
0.001469 0.014905 0.011363
0.007945 0.014753 0.009780
0.016128 0.000087 0.005967
0.016798 0.004673 0.001967
0.004233 0.008541 0.017066
0.011608 0.000037 0.013999
0.010502 -0.011638 0.003394
0.004646 0.015783 0.006268
0.009296 -0.012198 0.007997
0.004909 0.015124 0.012259
0.014151 0.010612 0.002870
0.003573 -0.019322 0.008923
0.011371 -0.008983 0.007157
0.005744 0.015466 0.012923
0.010215 -0.009664 0.008572
0.001165 0.020039 0.000748
0.005370 0.009493 0.015712
0.000766 0.026285 0.003795
0.006232 -0.019899 0.005606
0.004717 0.023346 0.000255
0.001411 0.015911 0.008463
0.000102 0.016668 0.004978
0.000165 0.010789 0.015455
0.008672 0.014479 0.001833
0.015064 0.008512 0.000422
0.005114 0.022031 0.000423
0.001215 0.016729 0.004862
0.014386 -0.005579 0.000036
0.011012 -0.008654 0.009091
0.010644 0.022551 0.001042
0.003602 0.015866 0.004099
0.015539 0.002552 0.007613
0.005311 0.015147 0.012538
0.007561 -0.005524 0.014415
0.003831 -0.023006 0.004468
0.015189 -0.002672 0.005577
0.006629 -0.009861 0.012911
0.014674 0.004263 0.009514
0.002232 0.010815 0.015784
0.008722 -0.015937 0.003274
0.006241 -0.020324 0.004873
0.011892 0.004757 0.013269
0.016616 0.000849 0.001201
0.001982 0.017013 0.012950
0.001164 0.023484 0.002743
0.005388 -0.009183 0.013557
0.014424 -0.005286 0.005566
0.016710 0.003312 0.003439
0.010441 -0.012056 0.006638
0.004886 0.015781 0.002886
0.004375 -0.022600 0.004561
0.005752 -0.020098 0.006342
0.003944 0.014541 0.000496
0.006241 0.015864 0.002027
0.003679 0.016314 0.010953
0.012024 -0.009460 0.001923
0.005007 -0.021972 0.004775
0.013616 0.008681 0.007952
0.006970 -0.017617 0.006105
0.008215 -0.016972 0.002776
0.010933 0.007304 0.013227
0.008525 0.008103 0.015440
0.010143 -0.002808 0.014397
0.012777 0.003935 0.012398
0.000009 0.004699 0.018344
0.016315 0.002906 0.005840
0.006868 0.008192 0.016377
0.003379 0.004030 0.018130
0.007770 0.011714 0.012439
0.012976 -0.007203 0.004997
0.001510 0.026896 0.003639
0.007645 0.014668 0.007437
0.001332 -0.001898 0.018025
0.010529 -0.003643 0.013749
0.007635 0.014463 0.008379
0.015427 -0.002763 0.002172
0.001529 0.015777 0.009509
0.007483 -0.001468 0.016284
0.010065 -0.013702 0.003001
0.002180 0.002034 0.018315
0.000097 0.027606 0.003450
0.002228 0.012949 0.012649
0.004429 -0.013224 0.011870
0.005560 -0.016424 0.009363
0.006312 -0.019888 0.005120
0.007419 -0.014793 0.008620
0.008698 -0.013228 0.007816
0.006764 0.014419 0.007626
0.002791 0.003297 0.018077
0.013194 -0.003172 0.010658
0.003180 -0.021088 0.008338
0.010331 0.004979 0.015079
0.007192 0.014244 0.010140
0.000207 0.021624 0.000863
0.005956 0.012583 0.012330
0.012525 0.001853 0.013092
0.006259 -0.009248 0.013244
0.010046 -0.001221 0.014700
0.006399 -0.013124 0.010938
0.014315 -0.001435 0.008183
0.016124 0.006687 0.003798
0.004075 -0.004567 0.016236
0.001958 -0.007447 0.015074
0.000920 -0.018415 0.009714
0.014264 -0.003684 0.007787
0.003481 0.013870 0.000513
0.015537 0.006959 0.004265
0.012096 -0.007409 0.007920
0.000698 -0.003144 0.017377
0.008415 -0.009026 0.011083
0.001126 -0.004875 0.016655
0.009308 -0.010697 0.009083
0.008884 -0.014634 0.005908
0.014383 0.006441 0.008146
0.004180 -0.011228 0.012930
0.003729 -0.021043 0.007869
0.014735 -0.003722 0.004809
0.000173 -0.003556 0.017229
0.015837 0.000396 0.006788
0.001548 -0.002244 0.017864
0.000812 0.006180 0.017818
0.016211 0.003141 0.005946
0.009296 0.006231 0.015586
0.000360 0.016686 0.006372
0.009533 -0.000433 0.015396
0.001209 0.026013 0.003658
0.016890 0.004672 0.001037
0.002362 0.021610 0.000706
0.014369 0.001609 0.009843
0.008978 -0.014883 0.003647
0.010858 -0.011079 0.000947
0.005337 -0.020374 0.006497
0.001429 0.017714 0.013693
0.008566 -0.015346 0.006015
0.006219 0.015730 0.012940
0.010043 0.024560 0.002520
0.000850 0.010559 0.016014
0.014459 0.006965 0.007981
0.014163 0.001385 0.010279
0.007455 -0.000795 0.016505
0.015339 -0.003164 0.002640
0.006933 -0.007534 0.013643
0.003304 0.012847 0.013131
0.004311 -0.021632 0.006550
0.012632 -0.007594 0.006642
0.005775 0.001841 0.017398
0.001722 0.022022 0.001414
0.006873 0.013112 0.000056
0.002839 0.015884 0.007677
0.006507 -0.020077 0.002764
0.006703 -0.008510 0.013155
0.015534 -0.000276 0.006720
0.003236 -0.024585 0.000220
0.015150 0.005256 0.008144
0.003226 0.014295 0.001790
0.011605 -0.005182 0.011335
0.005685 -0.018924 0.008010
0.003876 0.025860 0.002585
0.009106 0.011831 0.008212
0.006382 0.007858 0.016710
0.016407 0.002321 0.005554
0.010123 -0.012597 0.002129
0.010652 0.013520 0.004038
0.000098 -0.020150 0.008597
0.015164 -0.002265 0.004180
0.016439 0.001635 0.005643
0.015299 -0.003486 0.003156
0.011989 0.009817 0.008039
0.014013 -0.005945 0.000159
0.001075 0.013275 0.011711
0.011559 -0.010680 0.002677
0.004423 -0.020463 0.007336
0.001278 0.006704 0.017651
0.011372 -0.009086 0.006015
0.005644 -0.008627 0.014001
0.013825 0.004137 0.011458
0.014542 -0.004511 0.005697
0.001904 0.002545 0.018392
0.013462 0.006797 0.009575
0.010815 0.011070 0.007546
0.012684 -0.001397 0.012070
0.002407 -0.006143 0.015630
0.012108 -0.008740 0.004463
0.006472 0.009868 0.015410
0.009088 -0.009303 0.010701
0.003672 0.015441 0.003107
0.002710 0.016330 0.011425
0.001405 0.017639 0.014001
0.016246 0.004188 0.005830
0.008991 -0.011867 0.008725
0.014874 0.009598 0.002922
0.012488 0.010245 0.007102
0.014876 0.002884 0.008821
0.009145 0.017493 0.000004
0.001486 -0.008599 0.014757
0.001343 0.016487 0.012557
0.014952 0.007993 0.006143
0.006625 -0.019314 0.005231
0.014210 0.004832 0.010559
0.001520 0.016979 0.013143
0.003641 0.015662 0.011560
0.006760 -0.004895 0.015375
0.007445 0.014438 0.009642
0.003933 -0.010602 0.013179
0.015418 -0.001198 0.006320
0.016065 -0.000039 0.005540
0.007863 0.012610 0.010009
0.000593 0.024946 0.003659
0.015422 -0.002375 0.003546
0.010851 -0.010443 0.005038
0.015908 0.005180 0.006602
0.004038 0.015956 0.005447
0.004118 -0.014701 0.010974
0.008225 -0.016365 0.004513
0.010587 -0.011427 0.005028
0.006416 -0.009582 0.013040
0.006868 0.011664 0.013165
0.000277 0.016275 0.009017
0.011309 -0.000190 0.014232
0.001904 -0.008799 0.014615
0.013845 0.001839 0.011014
0.014876 0.008668 0.005023
0.010323 -0.012867 0.001256
0.008536 0.016341 0.013329
0.010427 0.000547 0.014816
0.006545 0.014834 0.010143
0.012124 -0.007166 0.008371
0.008557 -0.016257 0.003928
0.007612 -0.010191 0.011386
0.003917 0.015427 0.010234
0.015696 -0.000261 0.000195
0.011527 0.009536 0.009957
0.004091 0.015954 0.004837
0.016266 0.006694 0.003202
0.009480 0.004852 0.015455
0.004218 0.014814 0.000059
0.002494 0.012430 0.000733
0.013374 -0.005053 0.008706
0.000916 0.017804 0.013439
0.005762 0.015715 0.000305
0.013671 -0.003139 0.009284
0.006177 0.014691 0.008841
0.009955 0.011059 0.009559
0.012004 0.010847 0.007284
0.011506 0.010179 0.007671
0.007041 -0.018763 0.004797
0.008195 0.011489 0.012137
0.001759 -0.023337 0.005831
0.007116 0.003414 0.017289
0.011980 -0.008589 0.006614
0.009941 0.011201 0.010691
0.010057 -0.010797 0.007000
0.007636 -0.004290 0.015082
0.000290 -0.021300 0.007910
0.009175 0.010022 0.013536
0.010461 -0.010141 0.006289
0.014394 -0.004677 0.004427
0.016725 0.003433 0.003835
0.011024 -0.010901 0.004586
0.003717 -0.007381 0.014796
0.005358 0.022879 0.000775
0.002789 0.015829 0.008708
0.010843 0.002353 0.014796
0.002468 -0.016100 0.010810
0.010833 -0.011257 0.004083
0.014540 0.005311 0.009121
0.000061 -0.001058 0.018184
0.010870 0.021663 0.001387
0.006837 -0.019321 0.000568
0.003430 0.015952 0.005869
0.008862 0.016850 0.014119
0.003034 0.015915 0.007080
0.011383 0.008826 0.011545
0.008358 -0.014118 0.007394
0.003058 0.015972 0.009266
0.015259 0.008088 0.001101
0.008298 -0.008397 0.011959
0.007481 -0.013975 0.009367
0.015073 -0.001837 0.005787
0.002697 -0.005623 0.015862
0.007535 -0.005118 0.014925
0.007950 -0.007665 0.012995
0.000348 0.016615 0.007075
0.007096 0.014749 0.011611
0.002071 -0.014435 0.011580
0.005140 -0.011334 0.012537
0.008453 -0.016808 0.000111
0.015712 -0.002202 0.001066
0.004918 0.008858 0.016589
0.015728 0.006615 0.000212
0.009167 0.025144 0.000439
0.001867 -0.008374 0.014772
0.006639 0.014407 0.008090
0.004101 -0.013423 0.011746
0.001517 0.011356 0.000820
0.009959 0.013723 0.001023
0.001890 0.012334 0.014743
0.015841 0.006460 0.005416
0.013127 -0.007858 0.003796
0.005118 -0.016464 0.009685
0.003679 0.016314 0.010953
0.004952 -0.020007 0.007420
0.003447 0.025500 0.001561
0.001355 -0.007336 0.015125
0.012333 -0.005111 0.010533
0.001620 -0.024649 0.004039
0.007070 0.010957 0.014022
0.015401 -0.002581 0.002263
0.006617 0.016102 0.013303
0.015412 -0.002744 0.004580
0.010396 -0.012896 0.000148
0.008065 0.014643 0.007395
0.004779 0.015333 0.007733
0.015163 0.003589 0.008681
0.007169 0.012291 0.012197
0.002146 0.012789 0.014032
0.012620 0.001840 0.012216
0.007751 0.014089 0.007628
0.012141 0.008165 0.011785
0.001871 0.014988 0.003022
0.013675 0.005385 0.010714
0.003373 -0.016934 0.010392
0.014935 -0.003909 0.001691
0.008402 -0.016423 0.000971
0.008609 0.016519 0.013220
0.006723 0.006569 0.016555
0.009536 0.001905 0.015490
0.012203 0.007099 0.012735
0.003041 -0.019806 0.009111
0.003555 -0.016638 0.010562
0.004200 0.005587 0.017812
0.001747 -0.018091 0.010058
0.014969 0.003906 0.009182
0.013282 0.001623 0.011530
0.000202 -0.024300 0.004876
0.008760 0.007850 0.015329
0.010434 0.007464 0.013728
0.009029 0.000402 0.015781
0.007297 0.009757 0.015158
0.013383 -0.003700 0.009747
0.006926 -0.019513 0.003341
0.004530 0.024458 0.001554
0.000983 0.016148 0.010926
0.014396 0.000510 0.009669
0.003048 -0.020680 0.008697
0.009425 0.023274 0.000789
0.005508 -0.019924 0.006943
0.009194 0.011887 0.009859
0.014976 0.008978 0.002338
0.014784 -0.003188 0.006680
0.000725 0.013570 0.011293
0.005394 0.014054 0.011955
0.001214 -0.014022 0.011522
0.016407 0.006286 0.003884
0.007876 -0.014786 0.007799
0.014095 -0.002552 0.008914
0.009640 -0.006798 0.012586
0.000209 0.008714 0.016494
0.004689 -0.018197 0.008873
0.011919 -0.009613 0.002345
0.006563 -0.015997 0.008758
0.016304 0.001046 0.004447
0.001738 0.018112 0.014372
0.004909 0.015124 0.012259
0.012934 -0.003961 0.010235
0.007578 0.005964 0.016272
0.006859 0.006755 0.016411
0.003560 0.010191 0.015861
0.005849 0.015131 0.000157
0.002540 0.012528 0.014050
0.013380 -0.006815 0.003389
0.014817 0.010144 0.004678
0.005133 0.004247 0.017735
0.000030 -0.020781 0.008283
0.001120 0.015347 0.011617
0.009930 0.022505 0.001231
0.001217 0.009199 0.016694
0.006772 0.007243 0.016528
0.000060 0.023423 0.003215
0.003228 -0.010717 0.013268
0.002894 -0.014643 0.011523
0.007700 0.017286 0.014549
0.009258 -0.014422 0.003474
0.005169 0.015254 0.007667
0.000576 0.012676 0.012824
0.001598 0.021016 0.000999
0.000090 0.012670 0.012682
0.003911 -0.013783 0.011570
0.014412 0.001689 0.009160
0.010780 0.011910 0.007344
0.014493 -0.001630 0.007980
0.008111 -0.009062 0.011485
0.003579 -0.021923 0.006875
0.007905 -0.016973 0.001049
0.010013 -0.012742 0.003624
0.002208 0.015867 0.009273
0.000815 0.011369 0.015413
0.003167 0.013074 0.011756
0.008965 -0.014989 0.000110
0.001082 0.010962 0.015894
0.009236 -0.009900 0.010198
0.007760 0.009369 0.014902
0.001346 0.016648 0.005289
0.002813 -0.010283 0.013492
0.014384 0.010268 0.002388
0.010197 0.003360 0.015384
0.016273 0.000402 0.002214
0.010898 -0.010966 0.001725
0.005009 0.013682 0.011780
0.013372 0.007051 0.009909
0.004929 -0.012859 0.011692
0.005355 0.015460 0.004186
0.013482 0.006261 0.010232
0.007546 -0.018578 0.001724
0.002362 0.017753 0.013999
0.008580 -0.015761 0.003669
0.009463 -0.013700 0.000665
0.001299 0.011130 0.000561
0.011602 -0.009452 0.004926
0.011074 0.003967 0.014636
0.015468 0.007308 0.000418
0.016076 0.005046 0.006509
0.006848 -0.007258 0.013951
0.008466 0.011329 0.012092
0.014756 0.010143 0.005621
0.014105 0.003234 0.010222
0.005426 0.003620 0.017726
0.007966 -0.009692 0.011082
0.002029 0.012877 0.013445
0.008234 -0.016719 0.004032
0.012193 -0.007145 0.007918
0.007482 -0.010124 0.012153
0.009187 -0.013830 0.005672
0.014699 0.001481 0.008898
0.008790 0.008048 0.015093
0.003302 -0.010209 0.013415
0.001979 0.016786 0.012855
0.000250 0.003632 0.018391
0.016214 0.001314 0.006514
0.002611 0.012863 0.013191
0.006177 0.015800 0.002786
0.003550 -0.023620 0.003603
0.011924 0.006898 0.013030
0.014182 -0.001599 0.008704
0.000795 0.017541 0.013573
0.007165 -0.011775 0.011321
0.002966 0.016138 0.012099
0.004781 0.013711 0.000127
0.013509 -0.006516 0.000768
0.001125 -0.002564 0.017754
0.010737 0.021277 0.000992
0.008063 -0.016734 0.004954
0.015513 0.005203 0.007576
0.012163 0.004427 0.012660
0.004430 0.006275 0.017535
0.015211 -0.001349 0.005588
0.005073 0.000600 0.017333
0.003033 -0.006829 0.015072
0.011964 -0.008847 0.003459
0.000143 0.025284 0.004404
0.015934 -0.000341 0.001926
0.002770 0.014287 0.002234
0.014368 -0.001264 0.009327
0.001792 -0.016850 0.010429
0.002570 0.013307 0.011230
0.002358 0.022862 0.001678
0.014630 -0.000526 0.009014
0.002920 0.011849 0.014396
0.000604 -0.005044 0.016613
0.006377 0.011181 0.014362
0.004918 0.023592 0.000885
0.009891 -0.001739 0.014725
0.008124 0.014190 0.007356
0.012264 -0.008658 0.000901
0.007241 0.001335 0.016795
0.010662 -0.011642 0.000076
0.008539 0.014645 0.001060
0.012695 0.008783 0.010174
0.016343 0.005806 0.000268
0.009678 -0.014048 0.003853
0.007163 0.016647 0.014308
0.011905 0.008568 0.011555
0.001597 0.026518 0.003601
0.005701 -0.018473 0.008115
0.003059 0.013047 0.012515
0.016253 0.002170 0.006562
0.003783 0.015820 0.006346
0.014106 0.002789 0.010187
0.008516 -0.013929 0.006832
0.003844 0.016068 0.010479
0.015040 0.005594 0.007868
0.009181 -0.014788 0.002051
0.009240 -0.014500 0.003904
0.009239 0.014309 0.003513
0.000090 0.012670 0.012682
0.013792 0.007119 0.009233
0.007728 0.014685 0.009332
0.007746 0.015756 0.013190
0.002239 0.026618 0.003578
0.003905 0.004399 0.018072
0.006890 -0.016910 0.006300
0.001460 -0.018585 0.009848
0.011586 0.012384 0.001211
0.010751 -0.009530 0.006501
0.003635 -0.007885 0.014580
0.001752 0.018261 0.015041
0.015346 -0.001929 0.004044
0.014467 0.003113 0.009590
0.012075 0.001317 0.013914
0.008720 -0.010846 0.009561
0.013602 -0.002115 0.010426
0.008563 -0.010080 0.010575
0.010879 -0.007238 0.010115
0.011053 -0.008083 0.009442
0.013925 -0.005756 0.003894
0.012667 0.010929 0.006652
0.005561 0.012231 0.012720
0.001051 -0.011037 0.013312
0.006221 0.014219 0.011860
0.000526 -0.024517 0.004437
0.008419 0.004650 0.016135
0.011556 0.012108 0.001017
0.005180 0.013395 0.011919
0.006841 -0.005849 0.014930
0.004027 -0.003378 0.016654
0.007187 0.014774 0.010287
0.006258 -0.016536 0.008744
0.010538 0.010336 0.008685
0.013439 0.005938 0.010664
0.010524 0.020315 0.001400
0.004382 -0.011643 0.012791
0.004944 0.015681 0.003354
0.001502 -0.015573 0.011004
0.010644 0.022551 0.001042
0.014872 -0.002807 0.006857
0.009921 0.011726 0.007688
0.007587 0.015186 0.000504
0.007282 0.015261 0.002584
0.003925 -0.001320 0.017116
0.004392 0.009848 0.016140
0.015748 0.006612 0.004331
0.005304 0.008411 0.016744
0.015476 -0.002917 0.002953
0.000211 -0.016540 0.010277
0.008127 0.004458 0.016519
0.012349 0.009122 0.008633
0.006977 -0.016476 0.007704
0.002289 -0.008493 0.014560
0.009976 -0.011340 0.007739
0.016312 0.006559 0.002619
0.016452 0.006575 0.001996
0.008035 -0.016126 0.005377
0.008832 -0.000570 0.015548
0.008671 -0.013573 0.007392
0.002446 0.012765 0.013659
0.002059 0.018013 0.014778
0.007114 0.010078 0.014951
0.010855 -0.009015 0.008686
0.009949 -0.007702 0.011035
0.007088 0.015330 0.001170
0.002077 0.015303 0.003180
0.010718 -0.004684 0.012594
0.013564 0.000389 0.011027
0.008407 0.001752 0.016526
0.007169 0.012291 0.012197
0.001497 -0.024164 0.004807
0.001520 0.016979 0.013143
0.010873 0.023648 0.001953
0.010449 0.021249 0.001597
0.011317 0.006675 0.013211
0.008023 -0.013518 0.009036
0.012567 0.001080 0.012407
0.012503 0.011009 0.000637
0.005831 -0.015026 0.010069
0.006753 -0.010350 0.012630
0.003255 -0.018488 0.009634
0.008054 0.014788 0.001366
0.009418 0.013072 0.006753
0.007625 0.009147 0.015416
0.013569 -0.000215 0.010890
0.006860 -0.018794 0.000016
0.001637 0.010716 0.016535
0.007480 0.015413 0.000745
0.013800 0.000290 0.010486
0.010282 -0.012061 0.004064
0.000223 -0.021722 0.007644
0.003365 0.017473 0.013293
0.000031 -0.026004 0.000330
0.012111 0.002502 0.013218
0.011026 0.006296 0.013323
0.014725 0.008521 0.006043
0.000074 0.020628 0.001519
0.006794 0.011186 0.013918
0.006153 -0.007470 0.014247
0.001123 0.017059 0.013144
0.002013 -0.000550 0.018063
0.002649 0.015657 0.011791
0.000498 -0.005565 0.016352
0.002035 0.011845 0.000319
0.005102 0.014260 0.012038
0.005126 0.015554 0.006245
0.003305 0.017750 0.013538
0.006097 -0.020429 0.003134
0.010279 0.001828 0.014967
0.004836 -0.016663 0.009823
0.006320 -0.006904 0.014532
0.013360 -0.001108 0.011630
0.008401 -0.012349 0.009659
0.016272 0.000683 0.006233
0.006512 0.015073 0.005229
0.008186 0.008869 0.015057
0.001579 0.015384 0.011648
0.009746 0.019775 0.000663
0.007481 0.014802 0.011115
0.004230 -0.018300 0.009006
0.011929 0.009918 0.007745
0.016910 0.003085 0.003100
0.001405 0.017639 0.014001
0.000019 -0.023855 0.005407
0.002049 0.014492 0.002713
0.000486 0.016532 0.004286
0.004547 0.007028 0.017375
0.015921 -0.000630 0.005300
0.005243 -0.011871 0.012167
0.010742 0.009876 0.010828
0.004902 -0.010995 0.012791
0.007036 -0.009837 0.012623
0.005716 0.014238 0.011979
0.005180 0.013395 0.011919
0.014554 0.009940 0.002001
0.000283 0.021152 0.000747
0.013372 -0.006162 0.005718
0.002275 -0.013619 0.012013
0.016697 0.003464 0.001587
0.003899 0.015777 0.008491
0.000010 -0.018133 0.009301
0.014817 0.009476 0.002357
0.010526 0.013298 0.005026
0.000630 0.012279 0.013880
0.006300 -0.013975 0.010240
0.016681 0.003894 0.004158
0.015703 0.002051 0.007375
0.001717 0.016461 0.012530
0.012197 -0.008603 0.002927
