0.009901 0.024694 0.000397
0.006820 0.018669 -0.002955
0.007836 0.016506 -0.000515
0.013777 0.008285 -0.005566
0.009571 0.011292 -0.013118
0.002520 0.016745 0.012634
0.005931 -0.020794 0.003091
0.006643 -0.017924 0.007123
0.007778 0.013641 -0.011308
0.013597 0.008597 -0.003881
0.014932 -0.003775 0.000364
0.016421 0.003896 -0.002168
0.003105 0.011167 -0.016162
0.009918 0.000158 -0.014907
0.014635 0.001452 -0.009907
0.014930 0.007758 0.006679
0.004384 0.022458 -0.000937
0.010263 0.013002 -0.007660
0.009984 -0.012763 -0.001977
0.002235 0.014668 -0.009590
0.004212 0.015053 -0.000355
0.014265 -0.001909 -0.009254
0.009691 -0.013371 0.001043
0.004398 -0.023369 0.001564
0.001988 0.013499 0.011298
0.013803 -0.006271 -0.000684
0.000418 0.012860 0.012315
0.004081 -0.023647 0.000748
0.008533 0.018170 -0.001602
0.014430 0.005559 -0.010131
0.005614 -0.019748 -0.006264
0.002873 0.011106 0.015046
0.002837 0.017752 0.013749
0.005251 0.012931 -0.013697
0.000277 0.016275 0.009017
0.009411 -0.007987 -0.011561
0.012899 0.007482 0.010762
0.001575 0.014568 -0.010580
0.009668 0.012462 -0.009870
0.009948 0.025549 0.002121
0.007066 -0.017476 0.006801
0.011603 -0.004770 0.011566
0.000652 -0.006588 0.015637
0.011768 0.012560 0.004131
0.010053 0.002222 -0.015327
0.000449 0.016691 0.004518
0.000841 0.016942 -0.000966
0.010038 -0.012866 0.001659
0.002787 0.023990 -0.000851
0.015834 0.002769 -0.007306
0.003965 0.015636 0.009844
0.001955 0.018195 -0.001781
0.013992 -0.002504 -0.009175
0.008557 -0.008022 0.012248
0.010891 0.011998 -0.006363
0.001172 0.018534 0.015266
0.000663 0.018702 -0.000823
0.010213 -0.012427 -0.000677
0.007483 -0.001468 0.016284
0.009789 -0.013251 -0.002200
0.003517 0.026291 0.003479
0.002558 0.014157 -0.012424
0.014693 -0.003241 -0.000927
0.008146 0.014430 0.007475
0.011846 0.002433 0.013420
0.010445 -0.004934 -0.012437
0.010352 -0.004829 -0.012810
0.000766 0.026285 0.003795
0.012830 -0.008264 0.003562
0.007700 0.017286 0.014549
0.012236 -0.007407 0.007627
0.008950 0.007364 0.015508
0.005059 0.019240 -0.002200
0.009887 -0.013179 -0.001917
0.013329 -0.007195 0.003188
0.004193 0.014994 0.001120
0.001510 0.011870 -0.015437
0.012437 -0.007928 -0.003130
0.007044 0.014759 0.006272
0.012354 0.007499 0.011455
0.007506 -0.004117 -0.015310
0.003494 0.015721 0.003725
0.011544 -0.009244 -0.001318
0.008614 -0.015263 0.003873
0.010774 0.022997 0.001398
0.005308 -0.015904 0.009891
0.016278 0.000466 -0.003759
0.009997 -0.011323 -0.007143
0.001870 -0.021510 0.007893
0.009481 0.011325 0.011025
0.001609 0.011750 0.001553
0.006281 -0.019667 -0.003201
0.008974 -0.015098 -0.003003
0.007124 -0.018111 0.005699
0.006285 0.014944 0.010772
0.002040 0.014809 -0.004073
0.012212 0.009288 0.008218
0.012110 -0.008979 -0.005476
0.008440 0.001950 -0.016162
0.008346 -0.015937 0.004960
0.003988 0.005682 -0.017780
0.011063 -0.010671 -0.004312
0.011016 0.004377 -0.014156
0.002307 0.011172 -0.015849
0.006016 -0.017177 0.008572
0.013458 -0.007277 -0.005111
0.008943 0.011891 -0.002262
0.015119 0.008188 0.003457
0.001842 0.011839 0.001186
0.003955 -0.004335 0.016480
0.009493 -0.011126 0.008794
0.000949 0.015933 0.010392
0.007238 -0.018762 0.000748
0.008502 -0.006121 -0.013652
0.003304 0.014021 -0.012208
0.005034 0.014934 -0.006581
0.001003 0.014688 0.011263
0.007753 0.016550 0.014304
0.008074 0.014780 0.007815
0.009853 -0.012425 -0.001874
0.006786 0.001849 0.016977
0.011295 0.012315 0.006053
0.011223 -0.011135 -0.002453
0.004111 -0.009142 -0.014195
0.014757 0.006890 -0.007702
0.011858 -0.003459 0.011905
0.006275 -0.012391 0.011294
0.001599 -0.013507 0.012025
0.015065 0.007771 0.005801
0.014490 -0.004261 0.004977
0.006298 0.014739 -0.009733
0.006334 0.016039 0.013694
0.002366 -0.011696 0.013079
0.008762 -0.015979 0.000686
0.013302 -0.006086 0.006896
0.015059 0.007153 -0.005642
0.012721 -0.002180 0.011301
0.007851 -0.003732 0.015072
0.011511 0.009419 0.010534
0.009930 0.022505 0.001231
0.000772 0.013932 -0.001480
0.001541 -0.006578 -0.014878
0.012112 0.010085 -0.004843
0.014127 0.001960 0.010589
0.002112 -0.023001 0.006049
0.012962 0.008982 -0.005090
0.010870 -0.011115 0.000249
0.000371 0.025727 0.004162
0.007370 0.014997 0.010954
0.005553 0.003882 -0.017776
0.000660 0.000245 -0.017293
0.007971 0.012416 0.009612
0.016653 0.003301 -0.002497
0.004636 0.014343 0.011914
0.008382 -0.016398 -0.002148
0.003183 -0.005926 -0.015225
0.003285 0.016279 0.010585
0.006949 0.012793 -0.001250
0.004120 -0.000275 -0.017386
0.007480 0.015413 0.000745
0.002258 0.017410 0.013415
0.005100 0.007376 -0.017362
0.000665 -0.021746 0.007758
0.011042 -0.006864 -0.010650
0.009143 -0.002064 -0.014932
0.006642 0.011911 0.012872
0.008047 0.018765 -0.001580
0.007746 0.015756 0.013190
0.006800 -0.006866 0.014439
0.012987 -0.007522 -0.003903
0.009903 0.003737 -0.015452
0.011549 0.010563 0.007440
0.002769 -0.015068 0.011337
0.007854 0.022497 -0.001915
0.000725 0.014765 -0.005442
0.003463 0.021642 -0.002079
0.015385 0.007040 0.004937
0.000521 0.005073 0.018282
0.016527 0.002469 -0.006132
0.014620 -0.004505 -0.002592
0.014368 0.009984 0.005759
0.006287 -0.020027 -0.002253
0.002141 -0.009956 0.013630
0.013540 0.005095 0.011309
0.007561 -0.005524 0.014415
0.004393 0.018938 -0.002192
0.004415 0.015414 -0.006013
0.000417 0.010586 0.015648
0.010231 0.013703 0.001358
0.010719 0.007192 0.013476
0.014311 -0.005041 -0.006366
0.009901 0.024694 0.000397
0.008064 0.007535 -0.016055
0.003390 0.013919 -0.001897
0.004375 0.008970 0.016793
0.001809 0.014000 -0.001883
0.009432 0.024459 0.001987
0.000200 0.012200 0.013658
0.009004 -0.014773 0.001935
0.016517 0.002816 -0.004741
0.001741 0.014602 -0.010346
0.005487 -0.017325 0.008833
0.008820 -0.010258 0.010362
0.015029 -0.003158 -0.000652
0.016213 0.001372 -0.006467
0.011742 -0.009329 0.000301
0.003489 -0.019416 -0.008744
0.015436 0.005457 -0.006033
0.013330 -0.000536 -0.011740
0.006232 -0.011793 0.011634
0.006237 -0.005456 -0.015226
0.006065 0.014816 -0.005754
0.004242 0.010062 -0.016212
0.003993 0.018800 -0.002270
0.016334 -0.000069 0.003381
0.006119 0.014847 0.010068
0.000547 0.014777 -0.008970
0.001887 0.007093 0.017656
0.009333 0.025447 0.001050
0.003870 -0.018886 0.008941
0.007943 -0.006397 -0.013994
0.003579 -0.021923 0.006875
0.001519 0.010847 -0.016447
0.005394 -0.022021 0.002744
0.004440 0.022904 -0.000524
0.010536 -0.003317 -0.012984
0.008833 0.013901 0.000768
0.006607 -0.019569 0.001287
0.007950 -0.007665 0.012995
0.014868 -0.002526 -0.007619
0.000879 0.027235 0.002908
0.005743 0.017701 -0.003052
0.000920 -0.008379 0.014783
0.010810 0.022289 0.001417
0.000466 0.016709 0.012270
0.016141 -0.000904 0.003930
0.004414 0.013528 0.011683
0.005995 0.018872 -0.002113
0.008563 -0.009204 -0.011671
0.009650 -0.009478 0.010124
0.014542 -0.004511 0.005697
0.009765 -0.014359 -0.001715
0.006219 0.015730 0.012940
0.010694 0.023745 0.001567
0.014450 -0.000076 0.009485
0.002060 0.014934 0.011429
0.016450 0.001410 0.006160
0.003367 0.013512 -0.013118
0.009807 -0.013148 -0.004461
0.008145 -0.015867 -0.004398
0.001632 -0.004371 -0.016127
0.007115 -0.019140 0.001022
0.002167 -0.025450 0.000204
0.003659 0.001292 0.017969
0.014967 0.009345 0.003361
0.006590 0.013713 0.011340
0.011237 0.010261 0.008075
0.007041 -0.018763 0.004797
0.009510 -0.014446 -0.001244
0.006537 0.014620 -0.008121
0.008364 -0.005610 0.013815
0.014082 0.000719 -0.010922
0.008264 0.012867 0.007456
0.005355 0.015460 0.004186
0.008479 -0.014288 -0.005957
0.008037 -0.016966 -0.004140
0.008258 0.002730 0.016710
0.014867 -0.000608 0.007931
0.000532 0.012476 0.013372
0.001846 0.014673 -0.010756
0.011391 -0.009609 -0.002025
0.007899 0.020713 -0.001332
0.016180 0.005418 -0.002521
0.001317 0.016711 -0.001039
0.004597 0.008502 -0.017248
0.008855 0.013757 0.005963
0.004594 -0.022927 -0.004027
0.011746 -0.009671 0.002740
0.006155 0.019542 -0.001838
0.012987 -0.007019 0.005482
0.006305 0.015391 0.012471
0.003357 0.025834 0.003230
0.013520 -0.003380 0.009333
0.004454 0.015276 0.008799
0.007042 -0.003465 -0.015649
0.002028 -0.025372 0.002176
0.012761 0.002434 0.012802
0.012931 0.006802 -0.011314
0.011040 -0.007486 -0.009997
0.008127 0.004458 0.016519
0.006723 -0.018491 0.005974
0.016415 0.001046 0.002960
0.007877 0.007514 0.016085
0.009618 -0.007551 -0.011579
0.000392 0.018082 0.013776
0.016513 0.004411 0.002577
0.004567 -0.022240 -0.005190
0.004015 -0.023721 -0.000339
0.009675 0.025390 0.002481
0.002132 0.015804 0.003550
0.013044 0.005247 0.012111
0.002859 -0.002599 0.017267
0.009139 0.002653 -0.015802
0.015084 -0.003897 -0.006543
0.012221 0.002839 -0.013395
0.014036 -0.005718 0.003588
0.016220 0.005452 -0.001963
0.008741 -0.015828 0.002485
0.009630 0.011476 0.008404
0.016190 0.000291 -0.003089
0.001779 0.012679 0.014523
0.000691 0.013654 -0.013850
0.010171 0.010252 -0.013057
0.015325 -0.001020 0.006855
0.006016 0.012178 0.012687
0.002911 -0.019396 -0.009514
0.014536 -0.004781 0.000964
0.004646 0.012002 -0.015151
0.009282 0.011640 0.008821
0.006826 -0.019368 -0.000098
0.005364 -0.007204 0.014582
0.015703 0.002051 0.007375
0.001336 0.003513 0.018499
0.007740 -0.017646 0.001386
0.008454 0.007342 0.015920
0.015306 -0.002547 -0.002044
0.008215 -0.016972 0.002776
0.014583 0.009224 0.005760
0.004111 0.014582 -0.010233
0.007150 -0.018092 -0.002299
0.012845 0.005915 0.011586
0.016292 0.002686 -0.006607
0.006721 -0.018955 -0.002910
0.006155 -0.020198 0.001458
0.009292 0.019634 -0.000429
0.007220 -0.017013 0.007042
0.002385 0.008926 0.017006
0.004415 -0.001575 -0.016594
0.006142 0.017168 -0.001890
0.000909 0.011829 0.014975
0.009315 -0.012839 0.007117
0.011059 0.009382 0.011174
0.005756 -0.018014 0.008083
0.015719 0.004078 -0.007820
0.010212 -0.006763 0.011892
0.008523 0.009299 0.014327
0.016783 0.001821 0.001207
0.007876 -0.014786 0.007799
0.006644 0.015622 0.002526
0.009786 0.024385 0.002360
0.012365 -0.001277 0.012458
0.002439 0.012298 0.000114
0.002959 0.014170 -0.000760
0.006299 -0.013737 0.010632
0.000100 -0.025545 -0.003812
0.004670 -0.004887 -0.015531
0.003509 0.009921 -0.016616
0.013872 -0.005820 -0.003292
0.016246 0.004188 0.005830
0.007368 0.016450 -0.001311
0.002021 0.013530 0.002315
0.010554 0.011477 -0.011485
0.013002 0.010673 0.000066
0.012542 -0.006032 0.008631
0.014357 -0.004806 0.002497
0.006449 0.014803 -0.008474
0.001672 0.016439 0.011771
0.001354 0.011944 0.015347
0.008866 0.013917 -0.008567
0.010012 -0.001956 -0.014186
0.005133 0.004247 0.017735
0.003244 0.013919 -0.001480
0.012154 0.003283 -0.013555
0.013111 0.009204 0.006350
0.005373 0.014825 0.000279
0.002539 0.008436 0.017240
0.006996 -0.012449 -0.010391
0.001201 0.000413 -0.017428
0.000183 0.002181 -0.017617
0.010205 0.007852 0.013434
0.003500 0.015598 -0.001652
0.011125 -0.010533 0.000652
0.015832 0.000496 -0.008143
0.007163 0.016647 0.014308
0.005839 0.008286 0.016672
0.001730 -0.014004 0.011734
0.016228 0.004953 -0.001834
0.011246 -0.010420 -0.002273
0.009359 0.011962 0.007687
0.009923 -0.004240 0.013705
0.010267 -0.013315 0.002888
0.013750 0.009211 0.006112
0.008464 -0.016574 -0.001599
0.016727 0.001029 0.001590
0.002756 0.012165 0.014245
0.003451 0.008960 -0.017310
0.007077 -0.019064 0.003301
0.002947 -0.018172 -0.010169
0.000620 -0.019600 0.009095
0.005998 0.013962 -0.012070
0.008722 -0.015990 0.002118
0.006623 0.013656 -0.011530
0.008235 0.014596 0.007778
0.016076 0.005304 -0.004290
0.014284 -0.000862 -0.010073
0.001517 0.011356 0.000820
0.008138 -0.006030 0.014075
0.008672 0.014479 0.001833
0.013265 -0.000449 0.011892
0.010887 0.007651 -0.014036
0.000361 0.010914 0.000704
0.006722 0.014672 -0.005320
0.013458 0.003184 0.011092
0.010425 -0.011614 0.004066
0.015164 -0.002265 0.004180
0.016128 0.000087 0.005967
0.011569 -0.008424 -0.008434
0.010723 0.010085 0.010422
0.015285 0.003141 -0.009363
0.005646 0.015484 0.012613
0.003354 -0.013727 0.011683
0.012453 0.010963 0.000214
0.004426 -0.007099 0.014796
0.000834 -0.019047 0.009466
0.010256 0.023440 0.000226
0.016304 0.000189 0.004340
0.014808 -0.004389 0.001321
0.000479 0.020060 0.000320
0.001908 0.021588 0.000924
0.014122 -0.002829 -0.008909
0.009968 -0.010890 -0.007582
0.004239 0.016353 -0.001242
0.006545 0.014834 0.010143
0.002101 -0.019344 -0.009814
0.000587 0.014680 -0.009840
0.006325 0.020273 -0.002087
0.011920 0.006345 0.013069
0.004303 0.013094 -0.013799
0.007625 0.014590 0.008296
0.005035 0.004756 0.017559
0.012057 -0.000570 0.013000
0.004432 0.003789 0.018068
0.013439 0.005938 0.010664
0.005155 0.015080 -0.008248
0.003061 -0.013746 -0.012180
0.012735 0.009549 0.006442
0.005102 0.014260 0.012038
0.006326 -0.016544 -0.007869
0.002666 -0.007477 0.014941
0.014242 -0.002043 0.008672
0.004603 -0.022866 0.002828
0.011094 -0.010873 -0.001274
0.009723 0.022193 -0.001000
0.013210 -0.005701 0.007927
0.012621 -0.006925 -0.008570
0.010441 0.011380 -0.005048
0.006126 -0.001842 0.016359
0.008161 -0.010472 0.010843
0.001007 0.012896 -0.001922
0.013111 -0.007395 0.004392
0.015423 0.000352 0.007645
0.007962 0.009339 -0.015952
0.003672 0.015441 0.003107
0.011585 0.006670 -0.013729
0.015705 -0.001990 0.001836
0.001022 0.004786 0.018266
0.004522 0.022345 0.000795
0.000680 -0.002176 0.017928
0.010403 -0.001707 0.014230
0.001520 0.016979 0.013143
0.006686 0.014115 -0.010583
0.014850 -0.003472 -0.000490
0.014863 0.008474 -0.000747
0.009857 0.021183 -0.000827
0.013743 -0.006350 0.000830
0.011605 -0.005182 0.011335
0.010626 -0.011747 0.006445
0.002273 0.010409 -0.016892
0.010795 -0.008592 0.009481
0.005937 0.004521 0.017377
0.002358 0.022862 0.001678
0.010988 -0.002804 -0.012608
0.014353 0.007959 -0.005541
0.004737 0.013426 0.011828
0.012620 -0.002858 0.011223
0.012973 -0.007369 0.004867
0.002371 0.014067 -0.012784
0.004387 0.001121 0.017679
0.012952 0.002921 0.011476
0.004168 -0.011603 -0.013226
0.007063 -0.018817 0.003560
0.008820 -0.010258 0.010362
0.005550 0.011600 -0.014988
0.010041 -0.005990 0.012676
0.008415 -0.009026 0.011083
0.007627 0.013286 -0.012519
0.000976 0.020399 -0.002441
0.010032 0.001519 -0.015258
0.005731 -0.003997 -0.016260
0.005043 0.014408 -0.000351
0.001306 0.001114 -0.017502
0.001071 0.024803 -0.000405
0.006431 -0.005662 0.015080
0.007673 -0.016228 0.005909
0.007052 0.021122 -0.002694
0.008558 -0.001827 0.015567
0.014478 -0.005079 -0.004647
0.010101 0.018827 0.000117
0.002991 0.014163 -0.002527
0.005281 -0.021679 -0.003774
0.011309 0.011137 -0.008089
0.015270 -0.001347 -0.008197
0.014530 -0.005096 -0.005630
0.008253 0.015973 0.013050
0.011854 -0.009336 0.003492
0.010971 -0.010878 -0.000846
0.006096 0.014761 0.012259
0.015773 -0.000638 0.002184
0.008507 -0.004390 0.014006
0.000486 0.020653 0.000216
0.004099 -0.015515 0.010654
0.002715 0.017515 -0.002220
0.016233 0.000686 0.000911
0.003759 -0.024078 0.000699
0.003255 -0.018488 0.009634
0.010082 0.023888 0.002287
0.000047 -0.016622 -0.011044
0.008300 -0.016185 -0.003521
0.006186 -0.019732 -0.004774
0.013054 0.009996 -0.001061
0.009022 0.011977 -0.002823
0.016455 0.000429 0.003471
0.002596 -0.003271 0.016931
0.001228 -0.019786 -0.009418
0.010870 0.021663 0.001387
0.001648 0.015874 0.010183
0.008430 -0.000699 0.015768
0.014847 -0.003575 -0.006929
0.005150 -0.022014 0.003806
0.012978 0.002628 0.012147
0.005713 0.001822 -0.017505
0.014479 -0.005346 -0.001219
0.006860 -0.018794 0.000016
0.007289 0.021285 -0.001867
0.004814 0.000843 0.017440
0.009371 -0.014680 -0.001516
0.006405 -0.019441 -0.004230
0.014597 -0.003938 -0.001887
0.004650 0.020258 -0.001270
0.006843 0.006312 0.016580
0.009597 0.012877 -0.006167
0.004019 0.014517 -0.009780
0.015907 0.005650 0.006097
0.001565 0.014358 -0.009992
0.001067 0.026618 0.003676
0.002346 -0.004692 0.016470
0.015088 -0.002952 -0.001038
0.001429 0.017714 0.013693
0.004040 -0.008145 -0.015099
0.016172 0.004066 -0.003895
0.009738 -0.001417 -0.014564
0.016509 0.001120 0.000766
0.016545 0.000797 0.001954
0.011750 -0.004412 -0.011265
0.009195 -0.013159 0.006714
0.002993 -0.024673 -0.001566
0.007402 -0.002937 0.015444
0.003841 0.003779 0.018074
0.001129 0.001137 0.018388
0.006259 -0.009248 0.013244
0.013297 0.011455 0.003060
0.009553 -0.013222 -0.005861
0.008121 -0.003112 -0.015248
0.013465 -0.004707 0.009092
0.016751 0.005866 0.001573
0.002666 -0.007477 0.014941
0.010818 0.024106 0.002148
0.016220 -0.000321 -0.006402
0.005348 -0.017908 -0.008221
0.006462 0.020387 -0.001751
0.009536 0.001905 0.015490
0.002199 -0.008001 0.014804
0.004141 -0.023648 0.000234
0.016731 0.001895 -0.001194
0.009630 0.011476 0.008404
0.010071 -0.013405 -0.001167
0.012852 -0.007030 0.005863
0.001202 -0.017023 -0.010734
0.008681 -0.015845 -0.001895
0.006763 -0.019168 -0.000637
0.015278 0.006503 0.006893
0.014360 -0.005231 -0.007541
0.003887 -0.015313 0.010884
0.000060 0.023423 0.003215
0.013359 -0.007029 0.001298
0.012858 -0.007453 -0.002279
0.007706 -0.009056 0.012327
0.006878 -0.019652 0.002612
0.001418 -0.014408 -0.012139
0.006492 -0.018997 0.005810
0.011989 0.009817 0.008039
0.004949 0.017860 -0.002629
0.002470 -0.015403 -0.011448
0.005059 0.019240 -0.002200
0.011414 0.003156 0.013618
0.001789 0.016411 0.004172
0.010358 0.008137 0.013162
0.000830 -0.012962 0.012304
0.011392 0.005664 -0.013941
0.015207 0.001610 0.008619
0.002127 0.015505 0.011751
0.012861 -0.005208 -0.009618
0.015914 -0.000409 0.002631
0.009181 -0.014788 0.002051
0.006277 0.006405 -0.017032
0.000426 0.020962 0.000402
0.007965 0.013982 0.007413
0.003646 0.022223 0.000841
0.006203 0.014225 -0.010488
0.016131 -0.000220 -0.003309
0.012699 -0.000355 -0.012687
0.009239 0.014309 0.003513
0.012124 0.010297 -0.008122
0.007774 0.004480 0.016758
0.000970 0.006461 -0.018099
0.004208 0.006548 0.017407
0.007036 -0.009837 0.012623
0.013453 -0.006124 0.004088
0.009145 0.017493 0.000004
0.012056 -0.007798 0.007911
0.014043 -0.006103 -0.005480
0.010182 -0.009774 0.008132
0.002321 -0.004877 -0.016331
0.006234 -0.020389 0.002197
0.008715 0.023864 -0.001082
0.005204 0.004323 -0.017904
0.005506 0.014897 0.010950
0.002995 0.024770 0.000163
0.002140 0.011213 0.015390
0.005037 -0.021989 -0.004031
0.016885 0.003076 0.003652
0.013323 0.007557 0.009716
0.000325 0.011613 -0.016159
0.006026 -0.020795 -0.000464
0.006283 -0.011443 0.011882
0.003497 0.014149 -0.001394
0.006285 0.014944 0.010772
0.000726 0.008941 0.016623
0.009296 -0.012198 0.007997
0.015814 -0.001856 -0.000444
0.013127 -0.007858 0.003796
0.011749 -0.002809 0.012628
0.007191 -0.018316 -0.001704
0.003684 0.005186 0.018002
0.010412 -0.012511 -0.000108
0.006838 0.015418 0.000447
0.005281 0.014716 -0.006986
0.011751 -0.008913 -0.006438
0.010315 -0.000484 -0.014486
0.009194 -0.013815 -0.005315
0.003709 0.012495 0.013698
0.014582 0.005605 0.008712
0.010165 -0.003932 -0.013279
0.010837 0.002500 -0.014541
0.012674 0.010019 -0.008037
0.007171 0.013838 0.010177
0.005939 -0.012762 0.011340
0.000348 0.016615 0.007075
0.003005 0.008108 0.017347
0.014736 0.003028 -0.010031
0.004951 0.016167 -0.001060
0.005142 0.012715 0.012450
0.008497 0.003086 0.016673
0.003256 -0.010115 -0.013909
0.014890 -0.004258 0.001515
0.009022 0.011977 -0.002823
0.005091 0.021602 -0.000830
0.004040 0.014114 -0.012277
0.015763 0.007233 0.003528
0.002368 0.015917 0.007155
0.000668 -0.003821 0.017014
0.013660 0.008244 0.008702
0.003704 0.014407 0.001061
0.001762 0.019179 -0.001286
0.010867 0.021173 0.001395
0.015389 0.000739 0.008022
0.008226 -0.008043 -0.012610
0.001744 0.024880 -0.000329
0.003609 0.016003 0.009183
0.009857 -0.013761 0.004491
0.004313 -0.015275 -0.010847
0.008296 -0.003516 -0.014851
0.009088 -0.009303 0.010701
0.016542 0.001409 0.003264
0.008284 -0.011645 0.010318
0.008325 -0.016341 -0.002584
0.001258 -0.006128 -0.015479
0.011317 0.006675 0.013211
0.006239 -0.001964 -0.016425
0.005623 0.013490 0.000396
0.015177 0.001109 0.008581
0.009905 0.012166 -0.010745
0.000578 0.008856 -0.017311
0.012975 -0.007817 0.003109
0.009367 0.001103 -0.015546
0.001712 -0.014213 -0.012114
0.000015 0.013755 -0.013108
0.002324 0.005432 -0.018053
0.002808 0.014697 -0.001526
0.000841 -0.002322 -0.016576
0.008639 -0.016305 0.000254
0.010008 0.012323 -0.005313
0.001192 0.015086 -0.001074
0.001468 0.019138 -0.000965
0.004025 -0.022324 0.005516
0.016263 0.005055 -0.002240
0.010239 0.009006 0.013072
0.014563 -0.000914 0.008669
0.010145 -0.013362 -0.000496
0.012653 -0.007900 -0.000197
0.009220 -0.011644 0.008480
0.000449 0.016691 0.004518
0.007273 -0.018906 0.001432
0.000412 0.019784 -0.001166
0.009029 0.000402 0.015781
0.007543 -0.016359 0.006873
0.007086 -0.000244 -0.016766
0.005164 -0.008489 0.014089
0.015933 0.000265 0.004764
0.006750 0.016858 -0.002343
0.007721 -0.005060 0.014436
0.004354 -0.004196 0.016313
0.015189 0.005911 -0.005551
0.007728 -0.006451 0.014283
0.005831 -0.019579 0.007191
0.007114 0.010078 0.014951
0.007338 0.012800 0.011188
0.003735 -0.009627 -0.014124
0.007267 0.013454 0.010431
0.011067 -0.009936 0.005782
0.014240 -0.001925 -0.010020
0.006194 -0.004433 0.015535
0.009162 0.004876 0.015551
0.013372 -0.006162 0.005718
0.001375 0.017121 -0.001208
0.000137 0.015073 -0.006360
0.006479 -0.003758 -0.015983
0.004993 -0.022439 0.001944
0.014114 0.000662 0.010256
0.016553 0.003634 -0.002907
0.003396 0.016131 0.009889
0.002801 -0.010303 -0.013725
0.009760 0.004823 -0.015568
0.003499 0.016922 0.012342
0.014362 -0.001313 0.008918
0.014396 0.000510 0.009669
0.009195 -0.004689 -0.013581
0.010455 0.022614 0.000561
0.010434 0.007464 0.013728
0.006697 -0.017410 -0.006483
0.009723 -0.013437 0.005050
0.015489 -0.001022 0.005895
0.007589 -0.013021 -0.009207
0.008370 0.013381 -0.005045
0.007982 0.014520 0.007052
0.009311 -0.014744 0.002245
0.002479 0.017767 0.014168
0.000411 0.014098 -0.002795
0.016593 0.003370 0.003016
0.016670 0.000686 -0.004492
0.013471 -0.006542 -0.002599
0.002342 -0.024842 0.003002
0.002548 -0.011406 -0.013596
0.006067 0.015775 0.000935
0.015549 -0.001570 0.004605
0.011772 0.007847 -0.012270
0.012165 -0.004354 0.011134
0.016366 0.003826 -0.001636
0.001177 0.010295 0.016350
0.015792 0.000016 0.000514
0.010589 0.010547 0.008346
0.011905 -0.003087 0.012200
0.004977 0.013914 0.000397
0.013052 -0.001771 0.011194
0.013379 0.003537 0.011329
0.009581 -0.013646 0.000365
0.007605 0.008535 0.015985
0.004560 0.016674 -0.002676
0.009056 0.013634 -0.008753
0.005883 0.004776 -0.017800
0.000010 0.018867 -0.000313
0.011556 0.012108 0.001017
0.010476 -0.011313 -0.001251
0.015369 -0.001639 -0.007500
0.011597 -0.009837 -0.005968
0.006288 -0.020296 0.002582
0.013312 -0.001493 0.011279
0.006394 0.014550 0.006853
0.006888 -0.001355 -0.016451
0.012571 0.000799 -0.012873
0.006665 -0.005093 -0.015244
0.005094 0.017794 -0.002406
0.014924 0.001571 -0.009684
0.003422 0.003371 0.018060
0.006539 0.011735 0.013050
0.013589 -0.000575 0.011260
0.005866 -0.010681 0.012581
0.002820 0.016117 0.009994
0.006021 -0.019320 0.007132
0.011856 0.010285 -0.009100
0.010119 -0.012726 -0.002312
0.002274 -0.025097 0.002502
0.003626 0.000307 0.017854
0.006725 0.015970 -0.000015
0.007854 0.022497 -0.001915
0.011623 0.009208 0.010849
0.008063 -0.016734 0.004954
0.010427 0.012564 -0.006306
0.001000 0.017978 -0.001604
0.000023 -0.012822 -0.012681
0.014137 -0.003317 -0.008822
0.010392 -0.001390 0.014408
0.010298 0.011819 -0.005280
0.014187 -0.005581 0.005973
0.015837 0.000396 0.006788
0.012554 -0.000644 0.012486
0.011585 0.006670 -0.013729
0.003802 -0.019466 -0.008587
0.016076 0.005046 0.006509
0.004251 0.025350 0.002746
0.009710 -0.010583 0.008702
0.002055 -0.008809 -0.014702
0.008273 0.017625 -0.001514
0.007433 -0.003966 0.015228
0.010020 0.022792 0.001744
0.009221 -0.006205 -0.012817
0.009774 0.013073 -0.008517
0.002090 0.015234 -0.001722
0.000725 0.020970 0.001679
0.007192 -0.018467 -0.000351
0.004134 0.017990 -0.002181
0.015058 0.009136 0.002853
0.006626 -0.017309 -0.007024
0.003294 0.012321 -0.015281
0.008633 -0.016145 -0.000920
0.005846 -0.011971 -0.011866
0.010077 0.012199 -0.000808
0.013015 -0.007428 -0.000863
0.008161 -0.004941 0.013917
0.013834 0.008533 -0.004982
0.008211 -0.008708 0.011624
0.011534 -0.009309 -0.006333
0.005912 0.009233 0.015838
0.011732 -0.008816 -0.006893
0.010555 0.007900 -0.014126
0.011148 -0.011626 -0.002433
0.016877 0.001908 -0.004261
0.010535 0.023920 0.002356
0.007615 -0.001451 -0.016155
0.008242 -0.016909 -0.001856
0.016177 -0.000163 -0.006727
0.010994 0.010198 0.008591
0.008169 0.016320 0.014117
0.005253 0.013317 -0.001195
0.002819 0.013283 -0.014250
0.010966 0.012915 0.001122
0.013865 0.008816 -0.003083
0.003063 0.017500 0.013441
0.001523 -0.025673 -0.000811
0.008656 -0.006840 -0.012708
0.007628 -0.000192 -0.016633
0.004804 -0.013927 -0.011500
0.015982 0.000431 -0.006786
0.016626 0.003844 0.004761
0.012635 -0.008583 -0.002650
0.006732 0.013489 0.011245
0.014035 -0.005982 -0.001177
0.005653 0.014969 -0.005062
0.014586 -0.004132 0.005597
0.013868 -0.005690 -0.002906
0.014321 -0.004692 0.006638
0.000487 0.011593 0.014996
0.011940 -0.004380 0.011549
0.009768 0.017518 0.000105
0.004035 -0.023534 -0.003739
0.009524 -0.003406 0.014779
0.000346 -0.014270 -0.012095
0.008874 -0.014749 0.001310
0.012323 -0.008897 -0.002860
0.014708 -0.003795 -0.002213
0.008046 0.014601 0.008199
0.001884 0.016240 -0.001612
0.000443 0.026562 0.001785
0.002165 0.011966 0.000951
0.001644 -0.009476 0.014121
0.004849 0.014105 -0.000164
0.001328 -0.007223 -0.014777
0.008660 -0.006450 -0.013112
0.000086 0.009644 -0.017240
0.003936 -0.022169 0.005879
0.004280 0.007861 -0.017640
0.003560 0.010191 0.015861
0.006886 -0.018020 0.006506
0.009088 -0.014970 -0.003360
0.014796 0.006893 -0.007530
0.012840 0.010469 0.006471
0.009901 0.024694 0.000397
0.009892 0.013188 -0.008105
0.015814 0.003052 -0.007618
0.007693 0.009607 0.014575
0.002332 -0.003645 -0.016605
0.012175 -0.008798 0.000239
0.014972 0.008252 -0.001819
0.001945 0.015631 -0.001744
0.009059 0.018072 -0.000452
0.009821 -0.005832 -0.012731
0.007205 -0.004143 -0.015531
0.015255 0.004128 0.008650
0.003073 -0.018633 -0.009962
0.000863 0.002713 -0.017788
0.005145 -0.021830 -0.001340
0.007709 0.015867 0.012445
0.001505 0.014525 -0.012168
0.002888 -0.006363 0.015344
0.008962 0.018048 -0.001210
0.004383 0.014861 -0.009123
0.012179 0.000705 0.013695
0.010096 -0.012849 -0.003580
0.002040 0.016162 0.003899
0.004942 0.015536 0.006820
0.005263 0.017884 -0.002909
0.009315 -0.013311 0.005804
0.006289 -0.004274 -0.015870
0.014371 -0.002453 0.008572
0.000386 0.020386 -0.002141
0.016519 0.005589 0.003404
0.014747 0.000455 0.009061
0.007475 0.002803 0.017027
0.000564 -0.004661 -0.015673
0.010552 -0.010046 0.007230
0.014605 -0.004592 -0.001683
0.012827 0.002065 0.012521
0.000226 -0.008830 -0.014818
0.012613 0.006133 -0.011876
0.016626 0.001184 -0.005018
0.012520 -0.008352 0.004470
0.007401 -0.017182 0.005424
0.013100 0.009086 -0.004733
0.000287 0.001221 -0.017417
0.012781 -0.003630 -0.011001
0.004075 -0.004567 0.016236
0.002569 0.024873 -0.000058
0.004549 -0.016758 0.009951
0.005825 -0.002407 0.016288
0.016633 0.002702 0.001678
0.010164 -0.011532 -0.005366
0.006399 0.013696 -0.012169
0.012567 0.001080 0.012407
0.009017 -0.007859 -0.011828
0.003012 0.026810 0.003468
0.003983 -0.003028 -0.016559
0.012243 -0.009090 -0.003675
0.003900 0.021474 -0.001926
0.012602 0.008918 0.008391
0.009615 0.017404 0.000258
0.010384 -0.012157 -0.003257
0.003648 0.024565 0.000549
0.016801 0.003325 0.004318
0.008982 0.013433 0.006588
0.014241 0.008059 -0.006627
0.009762 -0.012889 -0.005216
0.006108 -0.014933 -0.009156
0.002445 0.012295 -0.000244
0.006868 0.011664 0.013165
0.007419 -0.014793 0.008620
0.014216 0.003675 -0.010459
0.011650 -0.000130 0.013742
0.014105 0.003234 0.010222
0.005394 0.014054 0.011955
0.005322 0.019059 -0.002122
0.015412 0.005524 -0.006510
0.011709 0.000151 -0.013870
0.007046 -0.009037 0.012598
0.013520 0.001932 0.011251
0.003595 -0.006952 -0.015186
0.008613 -0.005823 0.013762
0.010066 -0.010578 0.006663
0.009223 -0.014819 -0.001434
0.004611 -0.022576 -0.003231
0.003977 0.014605 0.011228
0.013513 0.010183 0.005938
0.003048 -0.024517 -0.002925
0.014349 -0.005020 0.004947
0.006665 0.014838 0.005971
0.001884 0.015824 0.008608
0.004723 -0.005807 -0.015307
0.005997 -0.019980 -0.003493
0.015424 0.001237 -0.008950
0.005767 -0.008901 0.013684
0.012024 -0.007593 0.008190
0.004101 -0.013423 0.011746
0.001811 0.010894 0.016303
0.007864 -0.007064 -0.013582
0.000157 -0.022007 0.007373
0.013864 0.004818 -0.010857
0.008583 -0.013430 -0.006779
0.007103 0.014079 0.010542
0.007815 -0.017560 0.003089
0.004853 -0.021625 -0.005592
0.002130 -0.003233 0.017127
0.003687 -0.010974 0.013067
0.014625 -0.004021 -0.002342
0.006938 0.001056 0.016933
0.002634 0.019906 -0.001107
0.009927 -0.012011 -0.001920
0.016071 0.003144 0.006181
0.001332 -0.001898 0.018025
0.005256 0.015015 -0.007810
0.007527 -0.013811 -0.008285
0.000974 -0.020807 -0.008876
0.012986 -0.007571 -0.001718
0.005484 -0.019316 -0.006907
0.005631 -0.001488 -0.016691
0.013344 0.009354 -0.006961
